0.014985 -0.0069239610389610386 0.0019989090909090907
0.014985 -0.0069239610389610386 0.0039968636363636352
0.014985 -0.0069239610389610386 0.005994818181818181
0.014985 -0.0069239610389610386 0.0079927727272727251
0.014985 -0.0069239610389610386 0.0099907272727272709
0.014985 -0.0069239610389610386 0.011988681818181817
0.014985 -0.0069239610389610386 0.013986636363636363
0.014985 -0.0069239610389610386 0.015984590909090907
0.014985 -0.0069239610389610386 0.017982545454545452
0.014985 -0.0069239610389610386 0.019980499999999998
0.014985 -0.0069239610389610386 0.021978454545454544
0.014985 -0.0069239610389610386 0.023976409090909086
0.014985 -0.0069239610389610386 0.025974363636363636
0.014985 -0.0069239610389610386 0.027972318181818182
0.014985 -0.0069239610389610386 0.029970272727272727
0.014985 -0.0069239610389610386 0.031968227272727266
0.014985 -0.0069239610389610386 0.033966181818181812
0.014985 -0.0069239610389610386 0.035964136363636358
0.014985 -0.0069239610389610386 0.037962090909090904
0.014985 -0.0069239610389610386 0.039960045454545449
0.014985 -0.0069239610389610386 0.041957999999999995
0.014985 -0.0069239610389610386 0.043955954545454541
0.014985 -0.0069239610389610386 0.045953909090909087
0.014985 -0.0069239610389610386 0.047951863636363633
0.014985 -0.0069239610389610386 0.049949818181818172
0.014985 -0.0069239610389610386 0.051947772727272717
0.014985 -0.0069239610389610386 0.05394572727272727
0.014985 -0.0069239610389610386 0.055943681818181816
0.014985 -0.0069239610389610386 0.057941636363636362
0.014985 -0.0069239610389610386 0.059939590909090901
0.014985 -0.0069239610389610386 0.061937545454545453
0.014985 -0.0069239610389610386 0.063935499999999992
0.014985 -0.0069239610389610386 0.065933454545454531
0.014985 -0.0069239610389610386 0.067931409090909084
0.014985 -0.0069239610389610386 0.069929363636363623
0.014985 -0.0069239610389610386 0.071927318181818176
0.014985 -0.0069239610389610386 0.073925272727272714
0.014985 -0.0069239610389610386 0.075923227272727267
0.014985 -0.0069239610389610386 0.077921181818181806
0.014985 -0.0069239610389610386 0.079919136363636359
0.014985 -0.0069239610389610386 0.081917090909090898
0.014985 -0.0069239610389610386 0.083915045454545437
0.014985 -0.0069239610389610386 0.085912999999999989
0.014985 -0.0048806493506493498 -0.0019970000000000001
0.014985 -0.0048806493506493498 9.5454545454530526e-007
0.014985 -0.0048806493506493498 0.0019989090909090907
0.014985 -0.0048806493506493498 0.0039968636363636352
0.014985 -0.0048806493506493498 0.005994818181818181
0.014985 -0.0048806493506493498 0.0079927727272727251
0.014985 -0.0048806493506493498 0.0099907272727272709
0.014985 -0.0048806493506493498 0.011988681818181817
0.014985 -0.0048806493506493498 0.013986636363636363
0.014985 -0.0048806493506493498 0.015984590909090907
0.014985 -0.0048806493506493498 0.017982545454545452
0.014985 -0.0048806493506493498 0.019980499999999998
0.014985 -0.0048806493506493498 0.021978454545454544
0.014985 -0.0048806493506493498 0.023976409090909086
0.014985 -0.0048806493506493498 0.025974363636363636
0.014985 -0.0048806493506493498 0.027972318181818182
0.014985 -0.0048806493506493498 0.029970272727272727
0.014985 -0.0048806493506493498 0.031968227272727266
0.014985 -0.0048806493506493498 0.033966181818181812
0.014985 -0.0048806493506493498 0.035964136363636358
0.014985 -0.0048806493506493498 0.037962090909090904
0.014985 -0.0048806493506493498 0.039960045454545449
0.014985 -0.0048806493506493498 0.041957999999999995
0.014985 -0.0048806493506493498 0.043955954545454541
0.014985 -0.0048806493506493498 0.045953909090909087
0.014985 -0.0048806493506493498 0.047951863636363633
0.014985 -0.0048806493506493498 0.049949818181818172
0.014985 -0.0048806493506493498 0.051947772727272717
0.014985 -0.0048806493506493498 0.05394572727272727
0.014985 -0.0048806493506493498 0.055943681818181816
0.014985 -0.0048806493506493498 0.057941636363636362
0.014985 -0.0048806493506493498 0.059939590909090901
0.014985 -0.0048806493506493498 0.061937545454545453
0.014985 -0.0048806493506493498 0.063935499999999992
0.014985 -0.0048806493506493498 0.065933454545454531
0.014985 -0.0048806493506493498 0.067931409090909084
0.014985 -0.0048806493506493498 0.069929363636363623
0.014985 -0.0048806493506493498 0.071927318181818176
0.014985 -0.0048806493506493498 0.073925272727272714
0.014985 -0.0048806493506493498 0.075923227272727267
0.014985 -0.0048806493506493498 0.077921181818181806
0.014985 -0.0048806493506493498 0.079919136363636359
0.014985 -0.0048806493506493498 0.081917090909090898
0.014985 -0.0048806493506493498 0.083915045454545437
0.014985 -0.0048806493506493498 0.085912999999999989
0.014985 -0.002837337662337661 -0.0019970000000000001
0.014985 -0.002837337662337661 9.5454545454530526e-007
0.014985 -0.002837337662337661 0.0019989090909090907
0.014985 -0.002837337662337661 0.0039968636363636352
0.014985 -0.002837337662337661 0.005994818181818181
0.014985 -0.002837337662337661 0.0079927727272727251
0.014985 -0.002837337662337661 0.0099907272727272709
0.014985 -0.002837337662337661 0.011988681818181817
0.014985 -0.002837337662337661 0.013986636363636363
0.014985 -0.002837337662337661 0.015984590909090907
0.014985 -0.002837337662337661 0.017982545454545452
0.014985 -0.002837337662337661 0.019980499999999998
0.014985 -0.002837337662337661 0.021978454545454544
0.014985 -0.002837337662337661 0.023976409090909086
0.014985 -0.002837337662337661 0.025974363636363636
0.014985 -0.002837337662337661 0.027972318181818182
0.014985 -0.002837337662337661 0.029970272727272727
0.014985 -0.002837337662337661 0.031968227272727266
0.014985 -0.002837337662337661 0.033966181818181812
0.014985 -0.002837337662337661 0.035964136363636358
0.014985 -0.002837337662337661 0.037962090909090904
0.014985 -0.002837337662337661 0.039960045454545449
0.014985 -0.002837337662337661 0.041957999999999995
0.014985 -0.002837337662337661 0.043955954545454541
0.014985 -0.002837337662337661 0.045953909090909087
0.014985 -0.002837337662337661 0.047951863636363633
0.014985 -0.002837337662337661 0.049949818181818172
0.014985 -0.002837337662337661 0.051947772727272717
0.014985 -0.002837337662337661 0.05394572727272727
0.014985 -0.002837337662337661 0.055943681818181816
0.014985 -0.002837337662337661 0.057941636363636362
0.014985 -0.002837337662337661 0.059939590909090901
0.014985 -0.002837337662337661 0.061937545454545453
0.014985 -0.002837337662337661 0.063935499999999992
0.014985 -0.002837337662337661 0.065933454545454531
0.014985 -0.002837337662337661 0.067931409090909084
0.014985 -0.002837337662337661 0.069929363636363623
0.014985 -0.002837337662337661 0.071927318181818176
0.014985 -0.002837337662337661 0.073925272727272714
0.014985 -0.002837337662337661 0.075923227272727267
0.014985 -0.002837337662337661 0.077921181818181806
0.014985 -0.002837337662337661 0.079919136363636359
0.014985 -0.002837337662337661 0.081917090909090898
0.014985 -0.002837337662337661 0.083915045454545437
0.014985 -0.002837337662337661 0.085912999999999989
0.014985 -0.00079402597402597301 -0.0019970000000000001
0.014985 -0.00079402597402597301 9.5454545454530526e-007
0.014985 -0.00079402597402597301 0.0019989090909090907
0.014985 -0.00079402597402597301 0.0039968636363636352
0.014985 -0.00079402597402597301 0.005994818181818181
0.014985 -0.00079402597402597301 0.0079927727272727251
0.014985 -0.00079402597402597301 0.0099907272727272709
0.014985 -0.00079402597402597301 0.011988681818181817
0.014985 -0.00079402597402597301 0.013986636363636363
0.014985 -0.00079402597402597301 0.015984590909090907
0.014985 -0.00079402597402597301 0.017982545454545452
0.014985 -0.00079402597402597301 0.019980499999999998
0.014985 -0.00079402597402597301 0.021978454545454544
0.014985 -0.00079402597402597301 0.023976409090909086
0.014985 -0.00079402597402597301 0.025974363636363636
0.014985 -0.00079402597402597301 0.027972318181818182
0.014985 -0.00079402597402597301 0.029970272727272727
0.014985 -0.00079402597402597301 0.031968227272727266
0.014985 -0.00079402597402597301 0.033966181818181812
0.014985 -0.00079402597402597301 0.035964136363636358
0.014985 -0.00079402597402597301 0.037962090909090904
0.014985 -0.00079402597402597301 0.039960045454545449
0.014985 -0.00079402597402597301 0.041957999999999995
0.014985 -0.00079402597402597301 0.043955954545454541
0.014985 -0.00079402597402597301 0.045953909090909087
0.014985 -0.00079402597402597301 0.047951863636363633
0.014985 -0.00079402597402597301 0.049949818181818172
0.014985 -0.00079402597402597301 0.051947772727272717
0.014985 -0.00079402597402597301 0.05394572727272727
0.014985 -0.00079402597402597301 0.055943681818181816
0.014985 -0.00079402597402597301 0.057941636363636362
0.014985 -0.00079402597402597301 0.059939590909090901
0.014985 -0.00079402597402597301 0.061937545454545453
0.014985 -0.00079402597402597301 0.063935499999999992
0.014985 -0.00079402597402597301 0.065933454545454531
0.014985 -0.00079402597402597301 0.067931409090909084
0.014985 -0.00079402597402597301 0.069929363636363623
0.014985 -0.00079402597402597301 0.071927318181818176
0.014985 -0.00079402597402597301 0.073925272727272714
0.014985 -0.00079402597402597301 0.075923227272727267
0.014985 -0.00079402597402597301 0.077921181818181806
0.014985 -0.00079402597402597301 0.079919136363636359
0.014985 -0.00079402597402597301 0.081917090909090898
0.014985 -0.00079402597402597301 0.083915045454545437
0.014985 -0.00079402597402597301 0.085912999999999989
0.014985 0.0012492857142857149 -0.0019970000000000001
0.014985 0.0012492857142857149 9.5454545454530526e-007
0.014985 0.0012492857142857149 0.0019989090909090907
0.014985 0.0012492857142857149 0.0039968636363636352
0.014985 0.0012492857142857149 0.005994818181818181
0.014985 0.0012492857142857149 0.0079927727272727251
0.014985 0.0012492857142857149 0.0099907272727272709
0.014985 0.0012492857142857149 0.011988681818181817
0.014985 0.0012492857142857149 0.013986636363636363
0.014985 0.0012492857142857149 0.015984590909090907
0.014985 0.0012492857142857149 0.017982545454545452
0.014985 0.0012492857142857149 0.019980499999999998
0.014985 0.0012492857142857149 0.021978454545454544
0.014985 0.0012492857142857149 0.023976409090909086
0.014985 0.0012492857142857149 0.025974363636363636
0.014985 0.0012492857142857149 0.027972318181818182
0.014985 0.0012492857142857149 0.029970272727272727
0.014985 0.0012492857142857149 0.031968227272727266
0.014985 0.0012492857142857149 0.033966181818181812
0.014985 0.0012492857142857149 0.035964136363636358
0.014985 0.0012492857142857149 0.037962090909090904
0.014985 0.0012492857142857149 0.039960045454545449
0.014985 0.0012492857142857149 0.041957999999999995
0.014985 0.0012492857142857149 0.043955954545454541
0.014985 0.0012492857142857149 0.045953909090909087
0.014985 0.0012492857142857149 0.047951863636363633
0.014985 0.0012492857142857149 0.049949818181818172
0.014985 0.0012492857142857149 0.051947772727272717
0.014985 0.0012492857142857149 0.05394572727272727
0.014985 0.0012492857142857149 0.055943681818181816
0.014985 0.0012492857142857149 0.057941636363636362
0.014985 0.0012492857142857149 0.059939590909090901
0.014985 0.0012492857142857149 0.061937545454545453
0.014985 0.0012492857142857149 0.063935499999999992
0.014985 0.0012492857142857149 0.065933454545454531
0.014985 0.0012492857142857149 0.067931409090909084
0.014985 0.0012492857142857149 0.069929363636363623
0.014985 0.0012492857142857149 0.071927318181818176
0.014985 0.0012492857142857149 0.073925272727272714
0.014985 0.0012492857142857149 0.075923227272727267
0.014985 0.0012492857142857149 0.077921181818181806
0.014985 0.0012492857142857149 0.079919136363636359
0.014985 0.0012492857142857149 0.081917090909090898
0.014985 0.0012492857142857149 0.083915045454545437
0.014985 0.0012492857142857149 0.085912999999999989
0.014985 0.0032925974025974046 -0.0019970000000000001
0.014985 0.0032925974025974046 9.5454545454530526e-007
0.014985 0.0032925974025974046 0.0019989090909090907
0.014985 0.0032925974025974046 0.0039968636363636352
0.014985 0.0032925974025974046 0.005994818181818181
0.014985 0.0032925974025974046 0.0079927727272727251
0.014985 0.0032925974025974046 0.0099907272727272709
0.014985 0.0032925974025974046 0.011988681818181817
0.014985 0.0032925974025974046 0.013986636363636363
0.014985 0.0032925974025974046 0.015984590909090907
0.014985 0.0032925974025974046 0.017982545454545452
0.014985 0.0032925974025974046 0.019980499999999998
0.014985 0.0032925974025974046 0.021978454545454544
0.014985 0.0032925974025974046 0.023976409090909086
0.014985 0.0032925974025974046 0.025974363636363636
0.014985 0.0032925974025974046 0.027972318181818182
0.014985 0.0032925974025974046 0.029970272727272727
0.014985 0.0032925974025974046 0.031968227272727266
0.014985 0.0032925974025974046 0.033966181818181812
0.014985 0.0032925974025974046 0.035964136363636358
0.014985 0.0032925974025974046 0.037962090909090904
0.014985 0.0032925974025974046 0.039960045454545449
0.014985 0.0032925974025974046 0.041957999999999995
0.014985 0.0032925974025974046 0.043955954545454541
0.014985 0.0032925974025974046 0.045953909090909087
0.014985 0.0032925974025974046 0.047951863636363633
0.014985 0.0032925974025974046 0.049949818181818172
0.014985 0.0032925974025974046 0.051947772727272717
0.014985 0.0032925974025974046 0.05394572727272727
0.014985 0.0032925974025974046 0.055943681818181816
0.014985 0.0032925974025974046 0.057941636363636362
0.014985 0.0032925974025974046 0.059939590909090901
0.014985 0.0032925974025974046 0.061937545454545453
0.014985 0.0032925974025974046 0.063935499999999992
0.014985 0.0032925974025974046 0.065933454545454531
0.014985 0.0032925974025974046 0.067931409090909084
0.014985 0.0032925974025974046 0.069929363636363623
0.014985 0.0032925974025974046 0.071927318181818176
0.014985 0.0032925974025974046 0.073925272727272714
0.014985 0.0032925974025974046 0.075923227272727267
0.014985 0.0032925974025974046 0.077921181818181806
0.014985 0.0032925974025974046 0.079919136363636359
0.014985 0.0032925974025974046 0.081917090909090898
0.014985 0.0032925974025974046 0.083915045454545437
0.014985 0.0032925974025974046 0.085912999999999989
0.014985 0.0053359090909090925 -0.0019970000000000001
0.014985 0.0053359090909090925 9.5454545454530526e-007
0.014985 0.0053359090909090925 0.0019989090909090907
0.014985 0.0053359090909090925 0.0039968636363636352
0.014985 0.0053359090909090925 0.005994818181818181
0.014985 0.0053359090909090925 0.0079927727272727251
0.014985 0.0053359090909090925 0.0099907272727272709
0.014985 0.0053359090909090925 0.011988681818181817
0.014985 0.0053359090909090925 0.013986636363636363
0.014985 0.0053359090909090925 0.015984590909090907
0.014985 0.0053359090909090925 0.017982545454545452
0.014985 0.0053359090909090925 0.019980499999999998
0.014985 0.0053359090909090925 0.021978454545454544
0.014985 0.0053359090909090925 0.023976409090909086
0.014985 0.0053359090909090925 0.025974363636363636
0.014985 0.0053359090909090925 0.027972318181818182
0.014985 0.0053359090909090925 0.029970272727272727
0.014985 0.0053359090909090925 0.031968227272727266
0.014985 0.0053359090909090925 0.033966181818181812
0.014985 0.0053359090909090925 0.035964136363636358
0.014985 0.0053359090909090925 0.037962090909090904
0.014985 0.0053359090909090925 0.039960045454545449
0.014985 0.0053359090909090925 0.041957999999999995
0.014985 0.0053359090909090925 0.043955954545454541
0.014985 0.0053359090909090925 0.045953909090909087
0.014985 0.0053359090909090925 0.047951863636363633
0.014985 0.0053359090909090925 0.049949818181818172
0.014985 0.0053359090909090925 0.051947772727272717
0.014985 0.0053359090909090925 0.05394572727272727
0.014985 0.0053359090909090925 0.055943681818181816
0.014985 0.0053359090909090925 0.057941636363636362
0.014985 0.0053359090909090925 0.059939590909090901
0.014985 0.0053359090909090925 0.061937545454545453
0.014985 0.0053359090909090925 0.063935499999999992
0.014985 0.0053359090909090925 0.065933454545454531
0.014985 0.0053359090909090925 0.067931409090909084
0.014985 0.0053359090909090925 0.069929363636363623
0.014985 0.0053359090909090925 0.071927318181818176
0.014985 0.0053359090909090925 0.073925272727272714
0.014985 0.0053359090909090925 0.075923227272727267
0.014985 0.0053359090909090925 0.077921181818181806
0.014985 0.0053359090909090925 0.079919136363636359
0.014985 0.0053359090909090925 0.081917090909090898
0.014985 0.0053359090909090925 0.083915045454545437
0.014985 0.0053359090909090925 0.085912999999999989
0.014985 0.0073792207792207805 -0.0019970000000000001
0.014985 0.0073792207792207805 9.5454545454530526e-007
0.014985 0.0073792207792207805 0.0019989090909090907
0.014985 0.0073792207792207805 0.0039968636363636352
0.014985 0.0073792207792207805 0.005994818181818181
0.014985 0.0073792207792207805 0.0079927727272727251
0.014985 0.0073792207792207805 0.0099907272727272709
0.014985 0.0073792207792207805 0.011988681818181817
0.014985 0.0073792207792207805 0.013986636363636363
0.014985 0.0073792207792207805 0.015984590909090907
0.014985 0.0073792207792207805 0.017982545454545452
0.014985 0.0073792207792207805 0.019980499999999998
0.014985 0.0073792207792207805 0.021978454545454544
0.014985 0.0073792207792207805 0.023976409090909086
0.014985 0.0073792207792207805 0.025974363636363636
0.014985 0.0073792207792207805 0.027972318181818182
0.014985 0.0073792207792207805 0.029970272727272727
0.014985 0.0073792207792207805 0.031968227272727266
0.014985 0.0073792207792207805 0.033966181818181812
0.014985 0.0073792207792207805 0.035964136363636358
0.014985 0.0073792207792207805 0.037962090909090904
0.014985 0.0073792207792207805 0.039960045454545449
0.014985 0.0073792207792207805 0.041957999999999995
0.014985 0.0073792207792207805 0.043955954545454541
0.014985 0.0073792207792207805 0.045953909090909087
0.014985 0.0073792207792207805 0.047951863636363633
0.014985 0.0073792207792207805 0.049949818181818172
0.014985 0.0073792207792207805 0.051947772727272717
0.014985 0.0073792207792207805 0.05394572727272727
0.014985 0.0073792207792207805 0.055943681818181816
0.014985 0.0073792207792207805 0.057941636363636362
0.014985 0.0073792207792207805 0.059939590909090901
0.014985 0.0073792207792207805 0.061937545454545453
0.014985 0.0073792207792207805 0.063935499999999992
0.014985 0.0073792207792207805 0.065933454545454531
0.014985 0.0073792207792207805 0.067931409090909084
0.014985 0.0073792207792207805 0.069929363636363623
0.014985 0.0073792207792207805 0.071927318181818176
0.014985 0.0073792207792207805 0.073925272727272714
0.014985 0.0073792207792207805 0.075923227272727267
0.014985 0.0073792207792207805 0.077921181818181806
0.014985 0.0073792207792207805 0.079919136363636359
0.014985 0.0073792207792207805 0.081917090909090898
0.014985 0.0073792207792207805 0.083915045454545437
0.014985 0.0073792207792207805 0.085912999999999989
0.014985 0.0094225324675324684 -0.0019970000000000001
0.014985 0.0094225324675324684 9.5454545454530526e-007
0.014985 0.0094225324675324684 0.0019989090909090907
0.014985 0.0094225324675324684 0.0039968636363636352
0.014985 0.0094225324675324684 0.005994818181818181
0.014985 0.0094225324675324684 0.0079927727272727251
0.014985 0.0094225324675324684 0.0099907272727272709
0.014985 0.0094225324675324684 0.011988681818181817
0.014985 0.0094225324675324684 0.013986636363636363
0.014985 0.0094225324675324684 0.015984590909090907
0.014985 0.0094225324675324684 0.017982545454545452
0.014985 0.0094225324675324684 0.019980499999999998
0.014985 0.0094225324675324684 0.021978454545454544
0.014985 0.0094225324675324684 0.023976409090909086
0.014985 0.0094225324675324684 0.025974363636363636
0.014985 0.0094225324675324684 0.027972318181818182
0.014985 0.0094225324675324684 0.029970272727272727
0.014985 0.0094225324675324684 0.031968227272727266
0.014985 0.0094225324675324684 0.033966181818181812
0.014985 0.0094225324675324684 0.035964136363636358
0.014985 0.0094225324675324684 0.037962090909090904
0.014985 0.0094225324675324684 0.039960045454545449
0.014985 0.0094225324675324684 0.041957999999999995
0.014985 0.0094225324675324684 0.043955954545454541
0.014985 0.0094225324675324684 0.045953909090909087
0.014985 0.0094225324675324684 0.047951863636363633
0.014985 0.0094225324675324684 0.049949818181818172
0.014985 0.0094225324675324684 0.051947772727272717
0.014985 0.0094225324675324684 0.05394572727272727
0.014985 0.0094225324675324684 0.055943681818181816
0.014985 0.0094225324675324684 0.057941636363636362
0.014985 0.0094225324675324684 0.059939590909090901
0.014985 0.0094225324675324684 0.061937545454545453
0.014985 0.0094225324675324684 0.063935499999999992
0.014985 0.0094225324675324684 0.065933454545454531
0.014985 0.0094225324675324684 0.067931409090909084
0.014985 0.0094225324675324684 0.069929363636363623
0.014985 0.0094225324675324684 0.071927318181818176
0.014985 0.0094225324675324684 0.073925272727272714
0.014985 0.0094225324675324684 0.075923227272727267
0.014985 0.0094225324675324684 0.077921181818181806
0.014985 0.0094225324675324684 0.079919136363636359
0.014985 0.0094225324675324684 0.081917090909090898
0.014985 0.0094225324675324684 0.083915045454545437
0.014985 0.0094225324675324684 0.085912999999999989
0.014985 0.011465844155844156 -0.0019970000000000001
0.014985 0.011465844155844156 9.5454545454530526e-007
0.014985 0.011465844155844156 0.0019989090909090907
0.014985 0.011465844155844156 0.0039968636363636352
0.014985 0.011465844155844156 0.005994818181818181
0.014985 0.011465844155844156 0.0079927727272727251
0.014985 0.011465844155844156 0.0099907272727272709
0.014985 0.011465844155844156 0.011988681818181817
0.014985 0.011465844155844156 0.013986636363636363
0.014985 0.011465844155844156 0.015984590909090907
0.014985 0.011465844155844156 0.017982545454545452
0.014985 0.011465844155844156 0.019980499999999998
0.014985 0.011465844155844156 0.021978454545454544
0.014985 0.011465844155844156 0.023976409090909086
0.014985 0.011465844155844156 0.025974363636363636
0.014985 0.011465844155844156 0.027972318181818182
0.014985 0.011465844155844156 0.029970272727272727
0.014985 0.011465844155844156 0.031968227272727266
0.014985 0.011465844155844156 0.033966181818181812
0.014985 0.011465844155844156 0.035964136363636358
0.014985 0.011465844155844156 0.037962090909090904
0.014985 0.011465844155844156 0.039960045454545449
0.014985 0.011465844155844156 0.041957999999999995
0.014985 0.011465844155844156 0.043955954545454541
0.014985 0.011465844155844156 0.045953909090909087
0.014985 0.011465844155844156 0.047951863636363633
0.014985 0.011465844155844156 0.049949818181818172
0.014985 0.011465844155844156 0.051947772727272717
0.014985 0.011465844155844156 0.05394572727272727
0.014985 0.011465844155844156 0.055943681818181816
0.014985 0.011465844155844156 0.057941636363636362
0.014985 0.011465844155844156 0.059939590909090901
0.014985 0.011465844155844156 0.061937545454545453
0.014985 0.011465844155844156 0.063935499999999992
0.014985 0.011465844155844156 0.065933454545454531
0.014985 0.011465844155844156 0.067931409090909084
0.014985 0.011465844155844156 0.069929363636363623
0.014985 0.011465844155844156 0.071927318181818176
0.014985 0.011465844155844156 0.073925272727272714
0.014985 0.011465844155844156 0.075923227272727267
0.014985 0.011465844155844156 0.077921181818181806
0.014985 0.011465844155844156 0.079919136363636359
0.014985 0.011465844155844156 0.081917090909090898
0.014985 0.011465844155844156 0.083915045454545437
0.014985 0.011465844155844156 0.085912999999999989
0.014985 0.013509155844155844 -0.0019970000000000001
0.014985 0.013509155844155844 9.5454545454530526e-007
0.014985 0.013509155844155844 0.0019989090909090907
0.014985 0.013509155844155844 0.0039968636363636352
0.014985 0.013509155844155844 0.005994818181818181
0.014985 0.013509155844155844 0.0079927727272727251
0.014985 0.013509155844155844 0.0099907272727272709
0.014985 0.013509155844155844 0.011988681818181817
0.014985 0.013509155844155844 0.013986636363636363
0.014985 0.013509155844155844 0.015984590909090907
0.014985 0.013509155844155844 0.017982545454545452
0.014985 0.013509155844155844 0.019980499999999998
0.014985 0.013509155844155844 0.021978454545454544
0.014985 0.013509155844155844 0.023976409090909086
0.014985 0.013509155844155844 0.025974363636363636
0.014985 0.013509155844155844 0.027972318181818182
0.014985 0.013509155844155844 0.029970272727272727
0.014985 0.013509155844155844 0.031968227272727266
0.014985 0.013509155844155844 0.033966181818181812
0.014985 0.013509155844155844 0.035964136363636358
0.014985 0.013509155844155844 0.037962090909090904
0.014985 0.013509155844155844 0.039960045454545449
0.014985 0.013509155844155844 0.041957999999999995
0.014985 0.013509155844155844 0.043955954545454541
0.014985 0.013509155844155844 0.045953909090909087
0.014985 0.013509155844155844 0.047951863636363633
0.014985 0.013509155844155844 0.049949818181818172
0.014985 0.013509155844155844 0.051947772727272717
0.014985 0.013509155844155844 0.05394572727272727
0.014985 0.013509155844155844 0.055943681818181816
0.014985 0.013509155844155844 0.057941636363636362
0.014985 0.013509155844155844 0.059939590909090901
0.014985 0.013509155844155844 0.061937545454545453
0.014985 0.013509155844155844 0.063935499999999992
0.014985 0.013509155844155844 0.065933454545454531
0.014985 0.013509155844155844 0.067931409090909084
0.014985 0.013509155844155844 0.069929363636363623
0.014985 0.013509155844155844 0.071927318181818176
0.014985 0.013509155844155844 0.073925272727272714
0.014985 0.013509155844155844 0.075923227272727267
0.014985 0.013509155844155844 0.077921181818181806
0.014985 0.013509155844155844 0.079919136363636359
0.014985 0.013509155844155844 0.081917090909090898
0.014985 0.013509155844155844 0.083915045454545437
0.014985 0.013509155844155844 0.085912999999999989
0.014985 0.015552467532467536 -0.0019970000000000001
0.014985 0.015552467532467536 9.5454545454530526e-007
0.014985 0.015552467532467536 0.0019989090909090907
0.014985 0.015552467532467536 0.0039968636363636352
0.014985 0.015552467532467536 0.005994818181818181
0.014985 0.015552467532467536 0.0079927727272727251
0.014985 0.015552467532467536 0.0099907272727272709
0.014985 0.015552467532467536 0.011988681818181817
0.014985 0.015552467532467536 0.013986636363636363
0.014985 0.015552467532467536 0.015984590909090907
0.014985 0.015552467532467536 0.017982545454545452
0.014985 0.015552467532467536 0.019980499999999998
0.014985 0.015552467532467536 0.021978454545454544
0.014985 0.015552467532467536 0.023976409090909086
0.014985 0.015552467532467536 0.025974363636363636
0.014985 0.015552467532467536 0.027972318181818182
0.014985 0.015552467532467536 0.029970272727272727
0.014985 0.015552467532467536 0.031968227272727266
0.014985 0.015552467532467536 0.033966181818181812
0.014985 0.015552467532467536 0.035964136363636358
0.014985 0.015552467532467536 0.037962090909090904
0.014985 0.015552467532467536 0.039960045454545449
0.014985 0.015552467532467536 0.041957999999999995
0.014985 0.015552467532467536 0.043955954545454541
0.014985 0.015552467532467536 0.045953909090909087
0.014985 0.015552467532467536 0.047951863636363633
0.014985 0.015552467532467536 0.049949818181818172
0.014985 0.015552467532467536 0.051947772727272717
0.014985 0.015552467532467536 0.05394572727272727
0.014985 0.015552467532467536 0.055943681818181816
0.014985 0.015552467532467536 0.057941636363636362
0.014985 0.015552467532467536 0.059939590909090901
0.014985 0.015552467532467536 0.061937545454545453
0.014985 0.015552467532467536 0.063935499999999992
0.014985 0.015552467532467536 0.065933454545454531
0.014985 0.015552467532467536 0.067931409090909084
0.014985 0.015552467532467536 0.069929363636363623
0.014985 0.015552467532467536 0.071927318181818176
0.014985 0.015552467532467536 0.073925272727272714
0.014985 0.015552467532467536 0.075923227272727267
0.014985 0.015552467532467536 0.077921181818181806
0.014985 0.015552467532467536 0.079919136363636359
0.014985 0.015552467532467536 0.081917090909090898
0.014985 0.015552467532467536 0.083915045454545437
0.014985 0.015552467532467536 0.085912999999999989
0.014985 0.01759577922077922 -0.0019970000000000001
0.014985 0.01759577922077922 9.5454545454530526e-007
0.014985 0.01759577922077922 0.0019989090909090907
0.014985 0.01759577922077922 0.0039968636363636352
0.014985 0.01759577922077922 0.005994818181818181
0.014985 0.01759577922077922 0.0079927727272727251
0.014985 0.01759577922077922 0.0099907272727272709
0.014985 0.01759577922077922 0.011988681818181817
0.014985 0.01759577922077922 0.013986636363636363
0.014985 0.01759577922077922 0.015984590909090907
0.014985 0.01759577922077922 0.017982545454545452
0.014985 0.01759577922077922 0.019980499999999998
0.014985 0.01759577922077922 0.021978454545454544
0.014985 0.01759577922077922 0.023976409090909086
0.014985 0.01759577922077922 0.025974363636363636
0.014985 0.01759577922077922 0.027972318181818182
0.014985 0.01759577922077922 0.029970272727272727
0.014985 0.01759577922077922 0.031968227272727266
0.014985 0.01759577922077922 0.033966181818181812
0.014985 0.01759577922077922 0.035964136363636358
0.014985 0.01759577922077922 0.037962090909090904
0.014985 0.01759577922077922 0.039960045454545449
0.014985 0.01759577922077922 0.041957999999999995
0.014985 0.01759577922077922 0.043955954545454541
0.014985 0.01759577922077922 0.045953909090909087
0.014985 0.01759577922077922 0.047951863636363633
0.014985 0.01759577922077922 0.049949818181818172
0.014985 0.01759577922077922 0.051947772727272717
0.014985 0.01759577922077922 0.05394572727272727
0.014985 0.01759577922077922 0.055943681818181816
0.014985 0.01759577922077922 0.057941636363636362
0.014985 0.01759577922077922 0.059939590909090901
0.014985 0.01759577922077922 0.061937545454545453
0.014985 0.01759577922077922 0.063935499999999992
0.014985 0.01759577922077922 0.065933454545454531
0.014985 0.01759577922077922 0.067931409090909084
0.014985 0.01759577922077922 0.069929363636363623
0.014985 0.01759577922077922 0.071927318181818176
0.014985 0.01759577922077922 0.073925272727272714
0.014985 0.01759577922077922 0.075923227272727267
0.014985 0.01759577922077922 0.077921181818181806
0.014985 0.01759577922077922 0.079919136363636359
0.014985 0.01759577922077922 0.081917090909090898
0.014985 0.01759577922077922 0.083915045454545437
0.014985 0.01759577922077922 0.085912999999999989
0.014985 0.019639090909090912 -0.0019970000000000001
0.014985 0.019639090909090912 9.5454545454530526e-007
0.014985 0.019639090909090912 0.0019989090909090907
0.014985 0.019639090909090912 0.0039968636363636352
0.014985 0.019639090909090912 0.005994818181818181
0.014985 0.019639090909090912 0.0079927727272727251
0.014985 0.019639090909090912 0.0099907272727272709
0.014985 0.019639090909090912 0.011988681818181817
0.014985 0.019639090909090912 0.013986636363636363
0.014985 0.019639090909090912 0.015984590909090907
0.014985 0.019639090909090912 0.017982545454545452
0.014985 0.019639090909090912 0.019980499999999998
0.014985 0.019639090909090912 0.021978454545454544
0.014985 0.019639090909090912 0.023976409090909086
0.014985 0.019639090909090912 0.025974363636363636
0.014985 0.019639090909090912 0.027972318181818182
0.014985 0.019639090909090912 0.029970272727272727
0.014985 0.019639090909090912 0.031968227272727266
0.014985 0.019639090909090912 0.033966181818181812
0.014985 0.019639090909090912 0.035964136363636358
0.014985 0.019639090909090912 0.037962090909090904
0.014985 0.019639090909090912 0.039960045454545449
0.014985 0.019639090909090912 0.041957999999999995
0.014985 0.019639090909090912 0.043955954545454541
0.014985 0.019639090909090912 0.045953909090909087
0.014985 0.019639090909090912 0.047951863636363633
0.014985 0.019639090909090912 0.049949818181818172
0.014985 0.019639090909090912 0.051947772727272717
0.014985 0.019639090909090912 0.05394572727272727
0.014985 0.019639090909090912 0.055943681818181816
0.014985 0.019639090909090912 0.057941636363636362
0.014985 0.019639090909090912 0.059939590909090901
0.014985 0.019639090909090912 0.061937545454545453
0.014985 0.019639090909090912 0.063935499999999992
0.014985 0.019639090909090912 0.065933454545454531
0.014985 0.019639090909090912 0.067931409090909084
0.014985 0.019639090909090912 0.069929363636363623
0.014985 0.019639090909090912 0.071927318181818176
0.014985 0.019639090909090912 0.073925272727272714
0.014985 0.019639090909090912 0.075923227272727267
0.014985 0.019639090909090912 0.077921181818181806
0.014985 0.019639090909090912 0.079919136363636359
0.014985 0.019639090909090912 0.081917090909090898
0.014985 0.019639090909090912 0.083915045454545437
0.014985 0.019639090909090912 0.085912999999999989
0.014985 0.021682402597402596 -0.0019970000000000001
0.014985 0.021682402597402596 9.5454545454530526e-007
0.014985 0.021682402597402596 0.0019989090909090907
0.014985 0.021682402597402596 0.0039968636363636352
0.014985 0.021682402597402596 0.005994818181818181
0.014985 0.021682402597402596 0.0079927727272727251
0.014985 0.021682402597402596 0.0099907272727272709
0.014985 0.021682402597402596 0.011988681818181817
0.014985 0.021682402597402596 0.013986636363636363
0.014985 0.021682402597402596 0.015984590909090907
0.014985 0.021682402597402596 0.017982545454545452
0.014985 0.021682402597402596 0.019980499999999998
0.014985 0.021682402597402596 0.021978454545454544
0.014985 0.021682402597402596 0.023976409090909086
0.014985 0.021682402597402596 0.025974363636363636
0.014985 0.021682402597402596 0.027972318181818182
0.014985 0.021682402597402596 0.029970272727272727
0.014985 0.021682402597402596 0.031968227272727266
0.014985 0.021682402597402596 0.033966181818181812
0.014985 0.021682402597402596 0.035964136363636358
0.014985 0.021682402597402596 0.037962090909090904
0.014985 0.021682402597402596 0.039960045454545449
0.014985 0.021682402597402596 0.041957999999999995
0.014985 0.021682402597402596 0.043955954545454541
0.014985 0.021682402597402596 0.045953909090909087
0.014985 0.021682402597402596 0.047951863636363633
0.014985 0.021682402597402596 0.049949818181818172
0.014985 0.021682402597402596 0.051947772727272717
0.014985 0.021682402597402596 0.05394572727272727
0.014985 0.021682402597402596 0.055943681818181816
0.014985 0.021682402597402596 0.057941636363636362
0.014985 0.021682402597402596 0.059939590909090901
0.014985 0.021682402597402596 0.061937545454545453
0.014985 0.021682402597402596 0.063935499999999992
0.014985 0.021682402597402596 0.065933454545454531
0.014985 0.021682402597402596 0.067931409090909084
0.014985 0.021682402597402596 0.069929363636363623
0.014985 0.021682402597402596 0.071927318181818176
0.014985 0.021682402597402596 0.073925272727272714
0.014985 0.021682402597402596 0.075923227272727267
0.014985 0.021682402597402596 0.077921181818181806
0.014985 0.021682402597402596 0.079919136363636359
0.014985 0.021682402597402596 0.081917090909090898
0.014985 0.021682402597402596 0.083915045454545437
0.014985 0.021682402597402596 0.085912999999999989
0.014985 0.023725714285714287 -0.0019970000000000001
0.014985 0.023725714285714287 9.5454545454530526e-007
0.014985 0.023725714285714287 0.0019989090909090907
0.014985 0.023725714285714287 0.0039968636363636352
0.014985 0.023725714285714287 0.005994818181818181
0.014985 0.023725714285714287 0.0079927727272727251
0.014985 0.023725714285714287 0.0099907272727272709
0.014985 0.023725714285714287 0.011988681818181817
0.014985 0.023725714285714287 0.013986636363636363
0.014985 0.023725714285714287 0.015984590909090907
0.014985 0.023725714285714287 0.017982545454545452
0.014985 0.023725714285714287 0.019980499999999998
0.014985 0.023725714285714287 0.021978454545454544
0.014985 0.023725714285714287 0.023976409090909086
0.014985 0.023725714285714287 0.025974363636363636
0.014985 0.023725714285714287 0.027972318181818182
0.014985 0.023725714285714287 0.029970272727272727
0.014985 0.023725714285714287 0.031968227272727266
0.014985 0.023725714285714287 0.033966181818181812
0.014985 0.023725714285714287 0.035964136363636358
0.014985 0.023725714285714287 0.037962090909090904
0.014985 0.023725714285714287 0.039960045454545449
0.014985 0.023725714285714287 0.041957999999999995
0.014985 0.023725714285714287 0.043955954545454541
0.014985 0.023725714285714287 0.045953909090909087
0.014985 0.023725714285714287 0.047951863636363633
0.014985 0.023725714285714287 0.049949818181818172
0.014985 0.023725714285714287 0.051947772727272717
0.014985 0.023725714285714287 0.05394572727272727
0.014985 0.023725714285714287 0.055943681818181816
0.014985 0.023725714285714287 0.057941636363636362
0.014985 0.023725714285714287 0.059939590909090901
0.014985 0.023725714285714287 0.061937545454545453
0.014985 0.023725714285714287 0.063935499999999992
0.014985 0.023725714285714287 0.065933454545454531
0.014985 0.023725714285714287 0.067931409090909084
0.014985 0.023725714285714287 0.069929363636363623
0.014985 0.023725714285714287 0.071927318181818176
0.014985 0.023725714285714287 0.073925272727272714
0.014985 0.023725714285714287 0.075923227272727267
0.014985 0.023725714285714287 0.077921181818181806
0.014985 0.023725714285714287 0.079919136363636359
0.014985 0.023725714285714287 0.081917090909090898
0.014985 0.023725714285714287 0.083915045454545437
0.014985 0.023725714285714287 0.085912999999999989
0.014985 0.025769025974025979 -0.0019970000000000001
0.014985 0.025769025974025979 9.5454545454530526e-007
0.014985 0.025769025974025979 0.0019989090909090907
0.014985 0.025769025974025979 0.0039968636363636352
0.014985 0.025769025974025979 0.005994818181818181
0.014985 0.025769025974025979 0.0079927727272727251
0.014985 0.025769025974025979 0.0099907272727272709
0.014985 0.025769025974025979 0.011988681818181817
0.014985 0.025769025974025979 0.013986636363636363
0.014985 0.025769025974025979 0.015984590909090907
0.014985 0.025769025974025979 0.017982545454545452
0.014985 0.025769025974025979 0.019980499999999998
0.014985 0.025769025974025979 0.021978454545454544
0.014985 0.025769025974025979 0.023976409090909086
0.014985 0.025769025974025979 0.025974363636363636
0.014985 0.025769025974025979 0.027972318181818182
0.014985 0.025769025974025979 0.029970272727272727
0.014985 0.025769025974025979 0.031968227272727266
0.014985 0.025769025974025979 0.033966181818181812
0.014985 0.025769025974025979 0.035964136363636358
0.014985 0.025769025974025979 0.037962090909090904
0.014985 0.025769025974025979 0.039960045454545449
0.014985 0.025769025974025979 0.041957999999999995
0.014985 0.025769025974025979 0.043955954545454541
0.014985 0.025769025974025979 0.045953909090909087
0.014985 0.025769025974025979 0.047951863636363633
0.014985 0.025769025974025979 0.049949818181818172
0.014985 0.025769025974025979 0.051947772727272717
0.014985 0.025769025974025979 0.05394572727272727
0.014985 0.025769025974025979 0.055943681818181816
0.014985 0.025769025974025979 0.057941636363636362
0.014985 0.025769025974025979 0.059939590909090901
0.014985 0.025769025974025979 0.061937545454545453
0.014985 0.025769025974025979 0.063935499999999992
0.014985 0.025769025974025979 0.065933454545454531
0.014985 0.025769025974025979 0.067931409090909084
0.014985 0.025769025974025979 0.069929363636363623
0.014985 0.025769025974025979 0.071927318181818176
0.014985 0.025769025974025979 0.073925272727272714
0.014985 0.025769025974025979 0.075923227272727267
0.014985 0.025769025974025979 0.077921181818181806
0.014985 0.025769025974025979 0.079919136363636359
0.014985 0.025769025974025979 0.081917090909090898
0.014985 0.025769025974025979 0.083915045454545437
0.014985 0.025769025974025979 0.085912999999999989
0.014985 0.027812337662337663 -0.0019970000000000001
0.014985 0.027812337662337663 9.5454545454530526e-007
0.014985 0.027812337662337663 0.0019989090909090907
0.014985 0.027812337662337663 0.0039968636363636352
0.014985 0.027812337662337663 0.005994818181818181
0.014985 0.027812337662337663 0.0079927727272727251
0.014985 0.027812337662337663 0.0099907272727272709
0.014985 0.027812337662337663 0.011988681818181817
0.014985 0.027812337662337663 0.013986636363636363
0.014985 0.027812337662337663 0.015984590909090907
0.014985 0.027812337662337663 0.017982545454545452
0.014985 0.027812337662337663 0.019980499999999998
0.014985 0.027812337662337663 0.021978454545454544
0.014985 0.027812337662337663 0.023976409090909086
0.014985 0.027812337662337663 0.025974363636363636
0.014985 0.027812337662337663 0.027972318181818182
0.014985 0.027812337662337663 0.029970272727272727
0.014985 0.027812337662337663 0.031968227272727266
0.014985 0.027812337662337663 0.033966181818181812
0.014985 0.027812337662337663 0.035964136363636358
0.014985 0.027812337662337663 0.037962090909090904
0.014985 0.027812337662337663 0.039960045454545449
0.014985 0.027812337662337663 0.041957999999999995
0.014985 0.027812337662337663 0.043955954545454541
0.014985 0.027812337662337663 0.045953909090909087
0.014985 0.027812337662337663 0.047951863636363633
0.014985 0.027812337662337663 0.049949818181818172
0.014985 0.027812337662337663 0.051947772727272717
0.014985 0.027812337662337663 0.05394572727272727
0.014985 0.027812337662337663 0.055943681818181816
0.014985 0.027812337662337663 0.057941636363636362
0.014985 0.027812337662337663 0.059939590909090901
0.014985 0.027812337662337663 0.061937545454545453
0.014985 0.027812337662337663 0.063935499999999992
0.014985 0.027812337662337663 0.065933454545454531
0.014985 0.027812337662337663 0.067931409090909084
0.014985 0.027812337662337663 0.069929363636363623
0.014985 0.027812337662337663 0.071927318181818176
0.014985 0.027812337662337663 0.073925272727272714
0.014985 0.027812337662337663 0.075923227272727267
0.014985 0.027812337662337663 0.077921181818181806
0.014985 0.027812337662337663 0.079919136363636359
0.014985 0.027812337662337663 0.081917090909090898
0.014985 0.027812337662337663 0.083915045454545437
0.014985 0.027812337662337663 0.085912999999999989
0.014985 0.029855649350649355 -0.0019970000000000001
0.014985 0.029855649350649355 9.5454545454530526e-007
0.014985 0.029855649350649355 0.0019989090909090907
0.014985 0.029855649350649355 0.0039968636363636352
0.014985 0.029855649350649355 0.005994818181818181
0.014985 0.029855649350649355 0.0079927727272727251
0.014985 0.029855649350649355 0.0099907272727272709
0.014985 0.029855649350649355 0.011988681818181817
0.014985 0.029855649350649355 0.013986636363636363
0.014985 0.029855649350649355 0.015984590909090907
0.014985 0.029855649350649355 0.017982545454545452
0.014985 0.029855649350649355 0.019980499999999998
0.014985 0.029855649350649355 0.021978454545454544
0.014985 0.029855649350649355 0.023976409090909086
0.014985 0.029855649350649355 0.025974363636363636
0.014985 0.029855649350649355 0.027972318181818182
0.014985 0.029855649350649355 0.029970272727272727
0.014985 0.029855649350649355 0.031968227272727266
0.014985 0.029855649350649355 0.033966181818181812
0.014985 0.029855649350649355 0.035964136363636358
0.014985 0.029855649350649355 0.037962090909090904
0.014985 0.029855649350649355 0.039960045454545449
0.014985 0.029855649350649355 0.041957999999999995
0.014985 0.029855649350649355 0.043955954545454541
0.014985 0.029855649350649355 0.045953909090909087
0.014985 0.029855649350649355 0.047951863636363633
0.014985 0.029855649350649355 0.049949818181818172
0.014985 0.029855649350649355 0.051947772727272717
0.014985 0.029855649350649355 0.05394572727272727
0.014985 0.029855649350649355 0.055943681818181816
0.014985 0.029855649350649355 0.057941636363636362
0.014985 0.029855649350649355 0.059939590909090901
0.014985 0.029855649350649355 0.061937545454545453
0.014985 0.029855649350649355 0.063935499999999992
0.014985 0.029855649350649355 0.065933454545454531
0.014985 0.029855649350649355 0.067931409090909084
0.014985 0.029855649350649355 0.069929363636363623
0.014985 0.029855649350649355 0.071927318181818176
0.014985 0.029855649350649355 0.073925272727272714
0.014985 0.029855649350649355 0.075923227272727267
0.014985 0.029855649350649355 0.077921181818181806
0.014985 0.029855649350649355 0.079919136363636359
0.014985 0.029855649350649355 0.081917090909090898
0.014985 0.029855649350649355 0.083915045454545437
0.014985 0.029855649350649355 0.085912999999999989
0.014985 0.031898961038961039 -0.0019970000000000001
0.014985 0.031898961038961039 9.5454545454530526e-007
0.014985 0.031898961038961039 0.0019989090909090907
0.014985 0.031898961038961039 0.0039968636363636352
0.014985 0.031898961038961039 0.005994818181818181
0.014985 0.031898961038961039 0.0079927727272727251
0.014985 0.031898961038961039 0.0099907272727272709
0.014985 0.031898961038961039 0.011988681818181817
0.014985 0.031898961038961039 0.013986636363636363
0.014985 0.031898961038961039 0.015984590909090907
0.014985 0.031898961038961039 0.017982545454545452
0.014985 0.031898961038961039 0.019980499999999998
0.014985 0.031898961038961039 0.021978454545454544
0.014985 0.031898961038961039 0.023976409090909086
0.014985 0.031898961038961039 0.025974363636363636
0.014985 0.031898961038961039 0.027972318181818182
0.014985 0.031898961038961039 0.029970272727272727
0.014985 0.031898961038961039 0.031968227272727266
0.014985 0.031898961038961039 0.033966181818181812
0.014985 0.031898961038961039 0.035964136363636358
0.014985 0.031898961038961039 0.037962090909090904
0.014985 0.031898961038961039 0.039960045454545449
0.014985 0.031898961038961039 0.041957999999999995
0.014985 0.031898961038961039 0.043955954545454541
0.014985 0.031898961038961039 0.045953909090909087
0.014985 0.031898961038961039 0.047951863636363633
0.014985 0.031898961038961039 0.049949818181818172
0.014985 0.031898961038961039 0.051947772727272717
0.014985 0.031898961038961039 0.05394572727272727
0.014985 0.031898961038961039 0.055943681818181816
0.014985 0.031898961038961039 0.057941636363636362
0.014985 0.031898961038961039 0.059939590909090901
0.014985 0.031898961038961039 0.061937545454545453
0.014985 0.031898961038961039 0.063935499999999992
0.014985 0.031898961038961039 0.065933454545454531
0.014985 0.031898961038961039 0.067931409090909084
0.014985 0.031898961038961039 0.069929363636363623
0.014985 0.031898961038961039 0.071927318181818176
0.014985 0.031898961038961039 0.073925272727272714
0.014985 0.031898961038961039 0.075923227272727267
0.014985 0.031898961038961039 0.077921181818181806
0.014985 0.031898961038961039 0.079919136363636359
0.014985 0.031898961038961039 0.081917090909090898
0.014985 0.031898961038961039 0.083915045454545437
0.014985 0.031898961038961039 0.085912999999999989
0.014985 0.033942272727272731 -0.0019970000000000001
0.014985 0.033942272727272731 9.5454545454530526e-007
0.014985 0.033942272727272731 0.0019989090909090907
0.014985 0.033942272727272731 0.0039968636363636352
0.014985 0.033942272727272731 0.005994818181818181
0.014985 0.033942272727272731 0.0079927727272727251
0.014985 0.033942272727272731 0.0099907272727272709
0.014985 0.033942272727272731 0.011988681818181817
0.014985 0.033942272727272731 0.013986636363636363
0.014985 0.033942272727272731 0.015984590909090907
0.014985 0.033942272727272731 0.017982545454545452
0.014985 0.033942272727272731 0.019980499999999998
0.014985 0.033942272727272731 0.021978454545454544
0.014985 0.033942272727272731 0.023976409090909086
0.014985 0.033942272727272731 0.025974363636363636
0.014985 0.033942272727272731 0.027972318181818182
0.014985 0.033942272727272731 0.029970272727272727
0.014985 0.033942272727272731 0.031968227272727266
0.014985 0.033942272727272731 0.033966181818181812
0.014985 0.033942272727272731 0.035964136363636358
0.014985 0.033942272727272731 0.037962090909090904
0.014985 0.033942272727272731 0.039960045454545449
0.014985 0.033942272727272731 0.041957999999999995
0.014985 0.033942272727272731 0.043955954545454541
0.014985 0.033942272727272731 0.045953909090909087
0.014985 0.033942272727272731 0.047951863636363633
0.014985 0.033942272727272731 0.049949818181818172
0.014985 0.033942272727272731 0.051947772727272717
0.014985 0.033942272727272731 0.05394572727272727
